# .PCD v0.7 - Point Cloud Data file format
VERSION 0.7
FIELDS x y z
SIZE 4 4 4
TYPE F F F
COUNT 1 1 1
WIDTH 1095
HEIGHT 1
VIEWPOINT 0 0 0 1 0 0 0
POINTS 1095
DATA ascii
6.5300293 0.80200195 0.9039917
14.463989 0.56851196 0.94848633
0.55942255 0.76634783 1.1516737
1.5130745 0.78811961 1.226115
2.4988053 0.78200364 1.2754029
3.4758568 0.76274097 1.261827
4.5138407 0.76870906 1.2186679
5.4781003 0.78045756 1.1211962
6.5223336 0.78061455 1.1875346
7.532125 0.7783193 1.5118099
8.5228157 0.76888102 1.8792107
9.4386053 0.7745676 1.8826625
10.493732 0.75716358 1.4552175
11.508016 0.77890342 1.4847035
12.439357 0.76063174 1.4667414
13.51715 0.78632611 1.2800939
14.290327 0.785061 1.110531
0.52229017 1.515113 1.1984493
1.5093626 1.4894427 1.2155162
2.4953372 1.4820551 1.3114673
3.4979861 1.4790015 1.3318937
4.4891343 1.4887714 1.3148994
5.5109935 1.4893365 1.2895279
6.4811745 1.4917519 1.3212423
7.573698 1.4698527 1.5056033
8.481061 1.4604415 1.8919679
9.5231581 1.5081533 1.8977195
10.525532 1.4595442 1.498513
11.481152 1.489367 1.4837914
12.477114 1.5211171 1.415543
13.507919 1.4975045 1.3266699
14.301296 1.4725088 1.2306204
0.44780093 2.4636798 1.6097468
1.4621922 2.4888895 1.4786384
2.524334 2.514112 1.3254358
3.4916782 2.4714437 1.4347185
4.5112371 2.4981723 1.4268137
5.4880714 2.4823503 1.4132435
6.4986906 2.4646652 1.4082388
7.5787668 2.4507401 1.4094299
8.4561348 2.4985764 1.8607347
9.5406885 2.4850798 1.9153876
10.478495 2.5656793 1.6554749
11.500362 2.4963865 1.4459175
12.467765 2.4717917 1.4856776
13.471748 2.487577 1.4010409
14.306531 2.4836454 1.3306061
0.55029762 3.4618618 1.5561736
1.4007589 3.5568602 1.5750555
2.5097096 3.4942563 1.3438333
3.5032117 3.4974713 1.4637907
4.4595346 3.4760656 1.4263583
5.4666429 3.5191283 1.4086695
6.4415936 3.5171275 1.5144415
7.6258531 3.3285387 1.3897829
8.5150337 3.5053303 1.8241832
9.5133429 3.4757731 1.9246163
10.472709 3.4942327 1.7599772
11.489569 3.5001531 1.4447697
12.461373 3.5099053 1.5202937
13.513691 3.5043316 1.4688133
14.299653 3.5566852 1.4073623
0.59586048 4.4623361 1.4510279
1.4327629 4.5351739 1.6681607
2.5167949 4.5131893 1.2992469
3.5066698 4.4965739 1.4076248
4.4727974 4.4906111 1.4627262
5.4842806 4.4950199 1.4072835
6.3276744 4.5395756 1.5411119
7.5827646 4.6729236 1.4086795
8.5251837 4.508379 1.6899333
9.505827 4.5105481 1.9370991
10.505569 4.5198426 1.908559
11.496259 4.5086946 1.5361587
12.473783 4.5029316 1.5566362
13.540164 4.5219197 1.4980124
14.274541 4.5106254 1.4260167
0.5112446 5.516623 1.310239
1.5052421 5.5309753 1.3749534
2.489176 5.5174398 1.298707
3.5082939 5.5036254 1.4285862
4.4871869 5.4841781 1.493988
5.5007005 5.4998446 1.4964371
6.4800448 5.4545994 1.4637879
7.5254812 5.5556641 1.4492157
8.5754595 5.55334 1.5762603
9.4907532 5.4955111 1.9493508
10.495406 5.4981499 1.9523978
11.538284 5.5458026 1.6376586
12.498116 5.510643 1.5854894
13.521811 5.5092092 1.4951509
14.274354 5.5011044 1.4288331
0.56055319 6.5066805 1.2675579
1.4889895 6.4636269 1.3772978
2.4830406 6.4816585 1.3780559
3.4856591 6.4933214 1.4348193
4.4859948 6.4600916 1.4558051
5.4971585 6.4755511 1.4770633
6.5113492 6.5297647 1.4666126
7.4813552 6.4836278 1.4549503
8.5398045 6.4579988 1.4689541
9.4601402 6.5090609 1.8777447
10.492719 6.500185 1.9765503
11.467284 6.537756 1.7730567
12.479256 6.479373 1.4956911
13.484619 6.48739 1.4763114
14.305977 6.4960823 1.4110656
0.53061998 7.516973 1.2526642
1.4855739 7.4909682 1.3068141
2.4941137 7.5165701 1.3837453
3.4829755 7.4748306 1.4175457
4.316699 7.5340886 1.5558305
5.5355463 7.4762106 1.4436493
6.500195 7.4763932 1.4812633
7.4923267 7.4734468 1.4671037
8.5269814 7.472405 1.4856553
9.4997854 7.4733648 1.7467344
10.53682 7.4941921 1.9817116
11.41113 7.485724 1.9339476
12.50796 7.4902487 1.5083969
13.450988 7.4873371 1.49221
14.29225 7.4891453 1.4592453
0.52899551 8.4572153 1.3043699
1.5125973 8.4653635 1.2834901
2.487093 8.5439129 1.3627135
3.4864702 8.4999704 1.4242027
4.4574828 8.5115128 1.490015
5.475812 8.5237455 1.4771652
6.4757814 8.4819155 1.4806967
7.4713545 8.5009918 1.4587725
8.460146 8.3774576 1.4471632
9.6157532 8.4635687 1.5528524
10.458919 8.551959 1.8514304
11.482291 8.4718018 1.9781824
12.589641 8.4619865 1.5090741
13.47457 8.5143538 1.4599928
14.275631 8.4966545 1.4537961
0.54347867 9.4765558 1.351096
1.4988109 9.4895992 1.2828426
2.4837813 9.5218544 1.340678
3.4806628 9.503582 1.3712801
4.492908 9.4910049 1.4341799
5.4580746 9.4987898 1.4564854
6.4709258 9.511775 1.4969841
7.3882966 9.4914436 1.4665552
8.4303293 9.6723785 1.2910696
9.5603666 9.5018854 1.5102204
10.517878 9.5108595 1.9539289
11.50219 9.5154781 1.9760191
12.52475 9.5439768 1.654373
13.543829 9.5437193 1.4540911
14.294146 9.5100765 1.4872618
0.53125125 10.521114 1.4203682
1.4777184 10.515199 1.3291544
2.554229 10.496549 1.383357
3.4592597 10.513419 1.3792893
4.4953427 10.48368 1.4352732
5.5050883 10.507846 1.4560243
6.4943547 10.503676 1.5267557
7.5352893 10.574504 1.4812392
8.5172596 10.528535 1.3736171
9.5309839 10.491066 1.4060565
10.4685 10.526834 1.8782436
11.495102 10.456592 1.97978
12.457976 10.507696 1.8535626
13.499806 10.492038 1.3949349
14.317755 10.523605 1.4955301
0.50225562 11.48267 1.4182289
1.4889419 11.504732 1.3260767
2.4827859 11.522641 1.3708354
3.4549782 11.482619 1.4133804
4.514863 11.47248 1.4753863
5.5357709 11.469126 1.5310867
6.5215974 11.51892 1.5495083
7.4777212 11.525333 1.5066328
8.5133886 11.471961 1.470718
9.5253077 11.552419 1.4532959
10.518488 11.501895 1.7764157
11.476172 11.545116 1.9511219
12.488878 11.498423 1.9014405
13.49152 11.469838 1.4950266
14.297226 11.518243 1.5294595
0.53863448 12.461023 1.3599297
1.4970198 12.490549 1.3769193
2.5664787 12.470229 1.4936293
3.5003147 12.514961 1.4722326
4.5257883 12.56171 1.5342234
5.5172782 12.498509 1.5309504
6.5043187 12.510011 1.5122148
7.505929 12.502349 1.5527903
8.4044504 12.584567 1.6370115
9.7203617 12.497224 1.5107886
10.541009 12.475341 1.3788748
11.476279 12.44168 1.8086858
12.512219 12.496097 1.9447384
13.509843 12.516046 1.561691
14.286343 12.522369 1.5725385
0.52902663 13.509602 1.4124365
1.4899452 13.521603 1.4216244
2.4973955 13.508439 1.4557972
3.4665813 13.498458 1.5050615
4.43472 13.473653 1.5484858
5.5067239 13.507977 1.5406312
6.530549 13.50035 1.471163
7.4659104 13.494985 1.479793
8.5321188 13.470702 1.3628428
9.446228 13.424797 1.3864605
10.59678 13.524292 1.5085591
11.494233 13.490952 1.9696676
12.510659 13.518204 1.9436218
13.53616 13.480315 1.4408444
14.307596 13.47218 1.5190009
0.54640764 14.469965 1.4026358
1.4753585 14.521851 1.4059838
2.5105932 14.488157 1.4318864
3.4917223 14.482296 1.4848877
4.5039182 14.497108 1.5006527
5.5054145 14.530199 1.4678584
6.5007806 14.492444 1.4577209
7.479929 14.473016 1.452231
8.5268545 14.504786 1.3786923
9.4498463 14.53777 1.6565117
10.60151 14.45765 1.4964284
11.442 14.521085 1.9246247
12.490189 14.492251 1.9446564
13.499825 14.479334 1.5062741
14.252889 14.485465 1.5052918
0.52428293 15.543464 1.3841817
1.5266995 15.536409 1.4239305
2.5166769 15.508387 1.4548987
3.5066547 15.515949 1.4519937
4.4787755 15.527797 1.4447572
5.5183835 15.484178 1.370477
6.5209036 15.53019 1.4518545
7.4936476 15.531271 1.4069668
8.4973545 15.471334 1.3408154
9.4710054 15.507799 1.4373713
10.540049 15.477511 1.491086
11.41798 15.502524 1.9143606
12.514237 15.492538 1.968716
13.521189 15.49213 1.6798148
14.295662 15.516344 1.5560755
0.53981739 16.500887 1.3117907
1.5169222 16.483477 1.3900783
2.5035734 16.487509 1.3931381
3.505105 16.515554 1.377553
4.468492 16.475588 1.3700285
5.5131292 16.515789 1.3954722
6.482666 16.47283 1.3335084
7.5241194 16.458811 1.2180301
8.5142536 16.470251 1.3017805
9.500967 16.507088 1.44319
10.575293 16.514029 1.460943
11.375565 16.499887 1.9232287
12.542027 16.483637 1.9859853
13.509615 16.466154 1.6724898
14.303943 16.503231 1.5168175
0.52646303 17.501837 1.3498802
1.4795649 17.5376 1.3472549
2.5289536 17.528736 1.3494025
3.4986181 17.515047 1.3709936
4.512826 17.499012 1.3663968
5.4691644 17.447895 1.2736899
6.4849524 17.513367 1.229995
7.5171361 17.481127 1.2221375
8.5096884 17.494926 1.2131845
9.4330463 17.485155 1.442234
10.634251 17.497707 1.5461406
11.226572 17.41283 1.9532658
12.598948 17.483727 1.984471
13.481497 17.48299 1.6333767
14.295968 17.476278 1.4802824
0.54439008 18.343801 1.3319083
1.5628947 18.337402 1.3584232
2.4764528 18.315456 1.408689
3.4852011 18.312338 1.3704875
4.4194279 18.291382 1.2668229
5.5316157 18.335089 1.2337579
6.4936218 18.328253 1.2292676
7.5205231 18.34227 1.2206194
8.4923182 18.321491 1.2091442
9.4957094 18.350695 1.4275671
10.598949 18.331203 1.6338006
11.127333 18.233166 1.9888442
12.851546 18.343485 1.9797493
13.514962 18.333729 1.5694177
14.265416 18.33988 1.4878668
12.603826 0.60233051 2.060585
9.8259888 1.0859985 2.019989
0.74578917 2.7342668 2.0635772
1.0781524 2.7994461 2.0298257
7.2869873 2.2750244 2.9809875
10.391163 2.8330519 2.4819553
0.82818931 3.0989721 2.0414526
1.0577791 3.0815721 2.016392
6.5162525 3.7603786 2.2497115
7.0329895 3.3494873 2.1719971
10.452931 3.071991 2.4401367
0.11071777 4.43328 2.0612924
1.4170525 4.2892189 2.0387282
6.3532958 4.214807 2.1880524
3.5727386 5.8052368 2.9304962
3.32055 6.1384482 2.9263356
4.1594849 6.9259949 2.1345062
10.338794 6.2898073 2.0002015
11.636437 6.7930937 2.4495246
3.9899902 7.1879883 2.4830017
4.321517 7.547832 2.1090326
10.682848 7.5811176 2.0034587
11.723901 7.032908 2.5027742
4.442749 8.0567474 2.0772552
11.404288 8.2082872 2.0012949
7.4160156 9.348999 2.1059875
11.432966 10.891055 2.0073063
12.559899 10.208773 2.3562591
5.5998807 11.658 2.1730042
9.131012 11.98999 2.0514984
11.500687 11.034504 2.0024395
12.694006 11.37721 2.098999
2.984607 12.480804 2.0135009
3.0917511 12.536892 2.1918428
4.5534453 12.852566 2.3267066
8.790082 12.529714 2.1303596
9.2462549 12.497066 2.1514902
3.738133 13.435425 2.8128531
4.4936175 13.138361 2.2973437
8.9058962 13.019989 2.0848999
9.1244049 13.032826 2.0368321
11.664577 13.109148 2
4.960319 14.15429 2.323133
5.0597911 14.238151 2.1848667
9.3894958 14.489502 2.0230103
11.797106 16.596489 2.0005443
12.222652 16.696772 2.0084774
11.677223 17.474791 2.0090773
12.198603 17.617355 2.0078883
13.343541 17.607372 2.5056062
11.558662 18.359333 2.0136185
12.337091 18.351471 2.0161014
13.271973 18.054016 2.0230103
5.4038005 2.8165965 3.9288936
6.5085564 2.2979746 3.8206384
7.1246796 2.284219 3.6698596
10.371907 2.728405 3.5131271
4.956953 3.8025146 3.9232361
5.1737928 3.1736236 3.9332252
8.072998 3.2600098 3.9309998
10.424246 3.0383375 3.5564055
4.9473057 4.3549333 3.8399842
5.0723977 4.6664715 3.9282868
7.9459839 4.965332 3.9896648
8.0422363 4.9007568 3.9544907
3.7439826 5.7347703 3.40359
4.3688312 5.5170569 3.8506944
5.4845972 5.4065318 3.9516575
6.8110027 5.5693927 3.9798646
7.6990747 5.1730413 3.9178226
2.920274 6.6935973 3.7133036
3.2138383 6.2483873 3.5676565
11.649901 6.7544384 3.5497601
2.7716885 7.4082942 3.9158354
3.052002 7.3220215 3.3800049
7.4963574 7.8037882 3.8235004
8.2290039 7.6603394 3.9196675
11.718002 7.042665 3.5636377
2.8458891 8.2588873 3.9011781
3.2307787 8.6934576 3.9356196
4.2762432 8.9452362 3.861181
6.9563122 8.4741011 3.8402994
7.0350666 8.4124651 3.8448966
4.4432859 9.0676785 3.8337195
6.9385014 9.6215458 3.6182299
7.0606351 9.8330593 3.6719999
12.352446 9.8798265 3.7688222
6.97052 10.039001 3.3820038
7.1258321 10.135112 3.7032771
8.6995087 10.820496 3.9119949
9.5079956 10.200989 3.9890137
12.294837 10.413421 3.6815259
3.8470752 12.835151 3.7085176
3.4832451 13.250196 3.5988424
12.948608 17.55299 3.6334045
13.23105 17.659748 3.5260713
5.675992 2.7793293 4.4312854
6.5112 2.597326 4.555758
7.2236547 2.7120793 4.5525289
10.369427 2.7499993 4.3567739
4.969368 3.8293581 4.1362715
5.3165946 3.4724138 4.579855
6.9639893 3.0130005 4.9920044
7.6076736 3.4226327 4.773994
8.0234213 3.815208 4.5086317
10.458652 3.1101255 4.340466
4.9706707 4.2253838 4.1006699
5.4045887 4.5126433 4.5916553
6.2919459 4.9233508 4.8460817
7.601985 4.6052365 4.7315674
8.0499058 4.5522847 4.3223171
3.6901219 5.7826505 4.5639534
4.4694734 5.5765681 4.4420905
5.5976062 5.3138556 4.2954412
6.5041366 5.2649746 4.3742394
7.2818518 5.2120976 4.3754077
2.9541874 6.8720288 4.2391253
3.2164912 6.3982363 4.6066179
5.6696205 6.6906595 4.8981824
11.312658 6.6944299 4.709187
2.8530784 7.4960432 4.5004597
3.0299749 7.1344891 4.9042234
5.8765874 7.4840264 4.8052292
6.0448084 7.7303581 4.4582405
7.6705546 7.8580194 4.422863
8.3762388 7.772397 4.6700449
9.1130047 7.9300699 4.6322675
11.62679 7.1109653 4.5461216
2.9002361 8.1925011 4.4345689
3.3770905 8.6319132 4.5769954
4.2775102 8.9249954 4.7251363
5.7245798 8.4455376 4.7935395
6.8724394 8.6198587 4.3878813
7.2778258 8.3864727 4.6932511
8.0300293 8.0059814 4.9979858
9.3117552 8.2056475 4.9240417
4.6689606 9.2705765 4.6434102
5.33564 9.4453735 4.7501965
6.9234014 9.3047628 4.4201307
7.1467214 9.5517263 4.7099667
9.4409704 9.7723846 4.8443675
12.415429 9.8315029 4.1710749
2.1521294 10.875421 4.8792977
3.8127096 10.660511 4.5904708
4.277195 10.340926 4.799377
6.3854175 10.84258 4.9284091
7.6006765 10.335268 4.6692305
8.5473671 10.626382 4.6605649
9.2136345 10.316429 4.5897503
11.987 10.278015 4.9649963
12.443775 10.455518 4.2436771
2.2597084 11.512587 4.6250544
3.4928746 11.159766 4.8850269
6.4695921 11.016589 4.9899964
2.6076763 12.088155 4.5813346
2.8638 13.228699 4.5879974
3.1784058 13.188794 4.2984009
12.914911 17.917364 4.4224548
13.212635 17.823856 4.2618623
12.999023 18.041016 4.2250061
13.071838 18.055847 4.3001404
5.9470215 2.9920044 5.0429993
6.3691392 2.9694831 5.0418105
9.8809519 2.8548508 5.1898026
10.171079 2.7595041 5.2488399
5.75073 3.6302717 5.16326
6.4930005 3.4747865 5.2706218
7.2738271 3.6440332 5.147141
9.8913422 3.0340068 5.2037506
10.243354 3.0828795 5.2782311
5.7772293 4.2896099 5.0952625
6.5215402 4.4514027 5.2040243
7.2560968 4.3192739 5.1677032
3.834739 5.8209872 5.1845961
4.4716468 5.7647433 5.3147416
5.1265216 5.822298 5.2006063
6.7870078 5 5.0109963
10.919983 5.9810181 5.8970032
11.230672 5.9600015 5.4733377
3.5799928 6.5752368 5.3528619
4.4891801 6.4775085 5.6253672
5.2810335 6.5213294 5.331306
10.970276 6.4971719 5.8493905
11.177224 6.6010871 5.3613386
2.977612 7.6750154 5.0548563
3.4892726 7.4941912 5.550416
4.5001965 7.5172901 5.8218203
5.4058762 7.4891524 5.4447894
7.9390259 7.9990234 5.0020142
8.6141758 7.947989 5.1096196
11.490705 7.1209631 5.3160005
3.5968611 8.3619986 5.324657
4.5047207 8.4885912 5.5115976
5.3167953 8.4332981 5.4159694
7.704329 8.5675879 5.2579293
8.450798 8.4993591 5.5299673
9.228322 8.5878344 5.3268294
12.123657 8.8016558 5.9979858
4.8599167 9.76616 5.484868
5.3117247 9.7969389 5.4818454
7.6304531 9.4774618 5.3489413
8.4816055 9.5001869 5.6129417
9.2227688 9.4518547 5.2388592
11.247882 9.532155 5.8850794
2.5485287 10.836273 5.2595582
3.4121127 10.958662 5.0613861
4.5683312 10.502834 5.4179196
5.4959002 10.4335 5.6694632
6.2390137 10.982971 5.0159912
7.7769146 10.119295 5.1677361
8.4920454 10.179695 5.2217689
9.0888147 10.057565 5.0886679
11.486002 10.314384 5.7421317
12.143657 10.608663 5.1246643
2.4572434 11.481248 5.5406008
3.5168231 11.523923 5.3366938
4.2027349 11.257665 5.5152164
5.7012544 11.0717 5.8766985
6.37883 11.074824 5.0204163
7.5991945 11.945398 5.9317017
11.867004 11.236023 5.9660034
12.125 11.596008 5.9880066
2.8200316 12.400106 5.5794816
3.2042613 12.3442 5.7639418
7.4072876 12.408347 5.862308
2.5801575 13.532579 5.3898158
3.0896161 13.130495 5.6088071
6.8899994 13.873749 5.9309921
7.3630347 13.851337 5.8561811
2.5943182 14.450641 5.8271284
3.3897679 14.884901 5.8492107
4.3895564 14.874639 5.9325547
6.9295421 14.460647 5.9490347
7.2910156 14.207886 5.8519855
3.8690109 15.226537 5.7981324
4.3899689 15.489575 5.8527875
5.1885071 15.176483 5.7645111
11.484501 16.894939 5.9500618
12.260498 16.645477 5.789505
11.603869 17.663139 5.8203897
12.082685 17.678804 5.8646684
13.362167 17.901667 5.1739221
11.751295 18.120432 5.8387842
12.218506 18.431833 5.7851715
13.336763 18.484385 5.6568451
9.2849407 2.7975969 6.8946147
9.5717831 3.7207685 6.8131413
10.129517 3.8135071 6.1115112
9.5615473 4.259151 6.8502507
10.177628 4.3418808 6.8711205
10.76726 5.7048869 6.8582215
11.177002 5.2082772 6.9486804
10.579306 6.422658 6.7065859
10.587234 7.6336274 6.7873383
11.199005 7.8395081 6.3905029
10.897322 8.0741386 6.8100863
11.403419 8.3871832 6.7698855
12.330883 8.8189993 6.4025769
13.275024 8.7789917 6.3880005
10.967998 9.9478254 6.2133384
11.298681 9.5477409 6.6062493
12.131134 9.0467453 6.7826233
3.9429812 10.761785 6.7498851
4.6061115 10.686934 6.625843
5.2552218 10.644277 6.4792614
6.2560487 10.946527 6.4233141
10.986633 10.06575 6.2957535
11.251198 10.428416 6.5762787
3.5532346 11.499913 6.8788843
4.7907376 11.166473 6.7511439
5.3590941 11.116608 6.8276372
6.7750058 11.453178 6.495913
7.242866 11.751665 6.3251247
11.77847 11.239854 6.5574417
12.357283 11.721126 6.5766697
13.445509 11.844097 6.7029839
2.3295248 12.621737 6.9184003
3.4679039 12.120825 6.5147033
5.921895 12.364264 6.9121957
6.2805715 12.50296 6.8204999
7.2924399 12.113182 6.2126079
12.759866 12.016933 6.8221817
13.07643 12.017375 6.8016229
5.9899902 13.142029 6.9790039
6.8227863 13.888871 6.3415856
7.0819573 13.852311 6.084075
2.7868176 14.324284 6.1650763
3.3521688 14.809605 6.4837742
4.8048873 14.780864 6.4684658
5.5055838 14.598222 6.6611872
6.5006485 14.630304 6.672133
7.1265202 14.694734 6.1300626
3.6779554 15.070212 6.7283201
4.7160354 15.173069 6.3063579
5.5847831 15.338278 6.5818672
6.5411906 15.229472 6.8116755
7.0768504 15.160522 6.7474732
11.530626 16.73637 6.5978451
12.129234 16.663309 6.7326698
13.347331 16.558329 6.9360046
11.458165 17.27248 6.5004516
12.142517 17.722504 6.0644989
11.733625 18.165455 6.3915162
12.110504 18.269012 6.1625061
13.607991 18.521667 6.0850015
9.6993055 1.6319863 7.7329555
10.143485 1.2074654 7.9254756
8.9535341 2.5828338 7.2812619
9.1971874 2.5207911 7.606936
9.7445583 3.5382614 7.4946389
10.266692 3.7095349 7.6408653
13.806098 3.7669816 7.7143931
14.124216 3.48996 7.8870454
9.7451124 4.2314782 7.2703075
10.221946 4.1831284 7.1815362
11.888977 4.9769897 7.802002
13.694613 4.2471004 7.7871571
10.777771 5.6806989 7.5832663
11.307857 5.306304 7.4499202
12.073669 5.1380005 7.9049988
10.510634 6.4856172 7.5673413
10.626958 7.5052438 7.5008039
11.382657 7.8346486 7.8642311
10.877871 8.0539045 7.3113198
11.413244 8.1361485 7.643579
12.089759 8.5246801 7.4313407
11.526143 9.450325 7.5088496
12.055215 9.0236511 7.3484955
4.2921495 10.795051 7.1690264
5.8979945 10.771953 7.4626594
6.2641721 10.820203 7.7367997
11.324734 10.543347 7.4920893
3.844981 11.463563 7.1974154
4.4681115 11.559192 7.4241562
5.5357099 11.511365 7.3118362
6.2397695 11.517144 7.8224936
11.614856 11.355251 7.5255113
12.453209 11.874458 7.7075896
13.581597 11.686838 7.639287
1.6808268 12.974389 7.1718345
2.4829981 12.667135 7.233108
3.6909573 12.328836 7.9337707
4.6013579 12.420877 7.8535476
5.4418383 12.49325 7.5047669
6.3786387 12.526241 7.5331841
7.2384191 12.840147 7.259244
12.733101 12.010002 7.4284878
13.13055 12.018284 7.219501
1.8210794 13.380456 7.2013941
2.3450944 13.520256 7.400034
3.9879882 13.667395 7.9901977
4.4176297 13.806015 7.8213739
5.5882926 13.425855 7.6903644
6.4237847 13.460056 7.3390298
7.1928697 13.123908 7.2073898
2.4852946 14.265217 7.361774
3.5273657 14.60211 7.3935618
4.4170179 14.469748 7.6266088
5.4516377 14.246819 7.6854348
6.3458185 14.213736 7.1427379
3.879488 15.102238 7.0491896
4.1940775 15.056138 7.1806827
5.9457955 15.429339 7.0743828
6.4566059 15.475411 7.2349892
7.0265732 15.412174 7.0803108
11.711496 16.84202 7.4207697
12.388144 16.516975 7.707139
13.459717 16.301952 7.621501
14.460327 16.884333 7.9594116
11.399114 17.479784 7.5619278
14.56621 17.056065 7.9637079
11.23821 18.276066 7.764894
9.9269352 1.8115932 8.3774319
10.167493 1.5546697 8.2809381
8.9744835 2.868674 8.4409323
9.4101734 2.5872045 8.5453119
10.039978 2.0560303 8.2030029
8.9530029 3.0150146 8.5969849
9.4948902 3.1288095 8.5512228
10.224359 3.6530519 8.3863592
13.931671 3.9400024 8.026001
14.298333 3.4893863 8.4179697
13.916635 4.3088269 8.1414328
14.110924 4.2898026 8.4693556
10.75928 5.7396884 8.6624842
11.499792 5.3315434 8.190382
12.013 5.1209717 8.3299866
10.606459 6.555356 8.4637089
10.662532 7.2809563 8.3527775
11.334486 7.6597161 8.2283773
11.936457 8.9218416 8.6452103
12.061656 8.8245926 8.6237669
11.499351 9.5016298 8.5491343
6.714035 10.884904 8.0509233
11.258065 10.456853 8.5376835
2.6811407 11.882693 8.2382231
3.4377894 11.811863 8.1494875
6.7603335 11.574867 8.1492996
7.1392274 11.647858 8.1495714
11.590887 11.422323 8.5642481
12.461749 11.750452 8.3910112
13.296452 11.624821 8.3592529
2.6657341 12.488872 8.3598042
3.4086368 12.534574 8.2054787
4.410079 12.787738 8.107378
5.067503 12.482029 8.0092649
6.747715 12.272567 8.2153301
7.0676365 12.258006 8.2648201
12.228027 12.005981 8.8420105
2.6691866 13.449911 8.5110455
3.4876761 13.533203 8.4212646
4.5038962 13.41402 8.3390617
5.3102345 13.61722 8.0651197
1.892158 14.722049 8.8209944
2.6492364 14.433619 8.759388
3.3991814 14.410074 8.5501108
4.0648971 14.184186 8.029458
3.0599976 15.010986 8.8783369
11.871311 16.910303 8.0920696
12.554556 16.733772 8.292697
13.444407 16.71269 8.3814707
14.208815 16.782091 8.2374668
11.554863 17.484146 8.4012909
12.455099 17.1469 8.3655262
13.550627 17.178778 8.7547102
14.166555 17.178293 8.5073986
11.35217 18.346674 8.3785267
9.8224154 1.8831913 9.403945
10.030334 1.7610067 9.0899963
9.7499008 2.4153659 9.321619
9.7427235 3.6807084 9.605813
10.174139 3.8515842 9.6612539
13.953989 3.810575 9.4043732
14.216636 3.5320928 9.4587946
10.191997 4.02634 9.9697742
13.906245 4.3215308 9.8993912
14.146122 4.6098042 9.9204416
10.774685 5.7477779 9.341466
11.180092 5.5929193 9.6624565
10.502507 6.4377899 9.5860348
11.016399 6.0397716 9.6156902
10.596195 7.3972125 9.5793762
11.265303 7.7553005 9.7525139
12.023987 7.9470215 9.2669983
11.887711 8.5778894 9.4566031
12.086958 8.7495975 9.4774504
11.679844 9.5971041 9.3841562
12.07042 9.1558828 9.4876099
11.326759 10.517831 9.5804806
11.649988 11.314849 9.4102421
12.343071 11.725569 9.5504436
13.272076 11.360853 9.5620155
12.239441 12.015767 9.4058876
1.986618 14.764626 9.1635017
2.2856367 14.714151 9.2352381
11.940447 16.930283 9.3998547
12.25189 16.824883 9.4522247
11.447598 17.498793 9.5722933
12.690905 17.215073 9.4411821
13.338933 17.267597 9.4339952
14.08358 17.508421 9.1505842
11.178827 18.255623 9.6014185
9.4403763 1.833992 10.604877
9.301239 2.7468448 10.767347
10.244359 2.9189835 10.8444
8.9713335 3.1521809 10.869161
9.6487598 3.4732215 10.66646
10.358903 3.4733284 10.587605
11.121562 3.3675537 10.755449
13.925241 3.8210499 10.359893
14.245507 3.6046276 10.572313
10.25814 4.0237231 10.0755
13.937919 4.2304735 10.177652
14.196273 4.3406544 10.284236
10.911038 5.8653102 10.282349
11.378934 5.6038661 10.541647
12.088163 5.3960056 10.67546
13.918445 5.3111644 10.580136
14.118682 5.4457378 10.764382
10.783349 6.5439754 10.460104
11.111423 6.1827097 10.856066
12.11499 6.9530029 10.924011
10.749471 7.2085018 10.494865
11.629573 7.643991 10.510802
12.052725 7.6215711 10.736964
11.867823 8.7056599 10.459632
12.270829 8.8640175 10.849115
11.676759 9.4535294 10.550018
12.122979 9.2873278 10.888595
11.481189 10.503622 10.453967
14.285995 10.879257 10.854752
11.8465 11.234725 10.434226
12.341832 11.527144 10.392172
13.665699 11.307101 10.526867
14.108403 11.180354 10.570043
11.743994 16.956202 10.158404
12.051686 16.935678 10.068166
11.618381 17.528158 10.333308
12.37768 17.445738 10.475122
13.319685 17.174622 10.525823
14.156982 17.151001 10.796997
11.483236 18.336571 10.334131
12.035209 18.226929 10.545868
8.9898882 1.8819038 11.50255
9.2132063 1.7771358 11.814359
10.127398 1.7597046 11.848203
9.1814041 2.4012012 11.599893
10.508434 2.9094353 11.070496
11.031006 2.8699951 11.140991
9.1793756 3.2513285 11.187931
10.743658 3.2566609 11.142014
13.947659 3.9151714 11.65633
14.309465 3.6102872 11.479171
13.826266 4.1927581 11.756121
14.071445 4.0587702 11.589552
11.623896 5.6715803 11.381184
10.864209 6.9572906 11.059052
11.37334 6.536438 11.159529
10.849539 7.2803388 11.19571
11.507937 7.257328 11.246857
12.158912 7.2601428 11.443303
12.778153 8.9247389 11.159032
13.046326 8.9373369 11.410004
11.605989 9.7840776 11.497262
12.345421 9.2320137 11.210752
13.020996 9.1099854 11.937012
11.37811 10.46471 11.5589
13.879219 10.79409 11.725371
14.12179 10.811449 11.415523
11.723681 11.331186 11.528921
12.450188 11.73004 11.534762
13.45533 11.420444 11.795823
14.063191 11.052757 11.340857
11.856995 16.987 11.992004
12.727592 16.959793 11.610823
13.228669 16.953592 11.777144
11.336346 17.670435 11.814252
12.6707 17.078226 11.374439
13.41197 17.096462 11.740526
14.079339 17.202108 11.401442
11.430387 18.306839 11.601538
9.7759619 1.9010375 12.298902
10.10359 1.8242439 12.369742
9.458806 2.4595249 12.508991
10.002991 2.9730225 12.880005
9.4525957 3.2886431 12.791528
10.364013 3.2365444 12.749315
13.907386 3.8585634 12.775687
14.347618 3.5792298 12.563134
13.75465 4.3567824 12.555883
10.966143 5.5810113 12.924574
11.258123 5.6709003 12.426955
14.438062 5.62323 12.754743
10.93923 6.8115721 12.725648
11.124498 6.5048628 12.455894
10.96352 7.1314249 12.776891
11.466797 7.1556029 12.573502
12.109366 7.2480373 12.221565
12.604004 8.8740234 12.772003
13.199201 8.8395872 12.14819
11.842368 9.5898094 12.264915
12.293666 9.484478 12.57036
13.281006 9.0139771 12.158997
11.615564 10.480068 12.431941
12.119839 10.106885 12.778603
13.424932 10.891478 12.207575
11.810841 11.231199 12.427229
12.443479 11.571762 12.431192
13.239774 11.310481 12.089881
11.8576 16.885773 12.603382
12.459952 16.900482 12.579268
10.982971 17.72699 12.063995
11.60071 17.542477 12.386583
12.829732 17.061668 12.658861
13.553527 17.34701 12.351568
14.094385 17.564941 12.291519
11.501079 18.339382 12.453011
13.869946 18.31599 12.616578
14.01018 18.194799 12.560003
9.6195908 1.8738098 13.606128
8.9990234 2.7579956 13.036011
9.6524172 2.6466997 13.369412
10.459532 2.8507497 13.569582
11.206992 2.7164977 13.791377
9.6158371 3.2206619 13.075514
10.43539 3.0827987 13.179409
11.163 3.053688 13.541001
13.948827 3.9295163 13.139771
14.337786 3.8326492 13.315166
11.557727 4.9092555 13.293556
13.814519 4.4267669 13.460297
14.159312 4.041378 13.616042
10.873139 5.8052559 13.515558
11.341598 5.3661814 13.379287
13.846497 5.1159973 13.382004
14.289179 5.4779406 13.416906
10.812222 6.3086362 13.555613
11.155034 6.5342612 13.491433
10.986626 7.2155075 13.099377
11.313161 7.4377294 13.664929
12.806409 7.2672119 13.935602
13.273499 7.1105042 13.834
12.235818 8.9457283 13.982458
11.6776 9.8324919 13.933815
12.093446 9.2302837 13.799743
11.617744 10.533556 13.485701
12.042567 10.060425 13.043143
11.850842 11.159553 13.391935
12.434319 11.543173 13.596952
13.052057 11.559881 13.719389
11.89164 16.909882 13.284081
12.205216 16.905178 13.593711
11.682942 17.507318 13.548704
12.489277 17.114878 13.673752
13.220325 17.346754 13.481503
11.423871 18.296841 13.545163
9.5250244 0.92700195 14.263
9.4968338 1.6399155 14.598484
9.6135588 2.4092898 14.6283
10.305256 2.676533 14.411566
11.408542 2.3814108 14.231231
14.341213 3.8382561 14.746732
11.54404 4.9513245 14.946181
13.836632 4.5141239 14.474182
14.165059 4.436594 14.769515
10.764711 5.7635727 14.61124
11.252346 5.3783975 14.654778
13.792486 5.1926837 14.516266
14.103251 5.2592897 14.637339
10.772543 6.238615 14.884929
11.502526 6.6889458 14.370831
12.467611 6.8286405 14.374493
13.106471 6.9006987 14.302057
11.533598 7.2191954 14.207448
12.431412 7.177412 14.230213
13.140965 7.1002822 14.123365
12.666331 8.9493322 14.352832
13.093399 8.9111414 14.666144
11.86154 9.6880598 14.310294
12.369562 9.2119932 14.420364
13.045329 9.0295105 14.677663
11.545325 10.483262 14.492055
14.272003 10.649506 14.971497
11.770889 11.235589 14.65163
12.48892 11.486892 14.273249
12.624675 16.961996 14.754832
11.688394 17.609257 14.504281
12.330833 17.181675 14.51837
13.571208 17.637947 14.482954
14.015991 17.577026 14.462006
11.601889 18.357487 14.51452
13.579 18.060778 14.904387
9.8265734 1.8259975 15.032576
9.7123575 2.3494525 15.044448
10.108374 2.50419 15.029973
14.396685 3.7403305 15.468834
11.71525 4.971426 15.140886
12.02301 4.9803262 15.29366
14.22305 4.4653401 15.47016
10.800264 5.7122664 15.131835
11.46585 5.4009628 15.362694
12.119774 5.2018294 15.575989
13.958997 5.2828126 15.724597
14.326567 5.5043612 15.454759
10.858502 6.2058091 15.235003
11.140779 6.4164519 15.43335
12.263013 6.7471924 15.065405
11.610487 7.3470111 15.928391
12.110225 7.5523777 15.982157
12.540666 8.9329281 15.939342
13.11595 8.9684992 15.840444
11.636126 9.6570539 15.776494
12.247896 9.1237192 15.791929
13.667297 9.3942719 15.863272
14.059336 9.8530016 15.755658
11.367079 10.528001 15.62537
13.947953 10.350886 15.910211
14.114721 10.381371 15.609914
11.763207 11.275118 15.531557
12.38063 11.527976 15.558462
13.34473 11.482776 15.746641
14.046997 11.09198 15.35199
12.93103 16.986023 15.098999
11.763431 17.665522 15.460385
12.4285 17.321884 15.520463
13.350791 17.752985 15.601191
11.768553 18.330444 15.514152
13.570984 18.195496 15.013
9.3808079 0.96529067 16.558388
8.9093952 1.7723682 16.572453
9.2157984 1.3465267 16.69883
8.9329748 2.1171374 16.555466
9.2901154 2.6022518 16.676931
11.453003 2.9483316 16.981667
9.7435617 3.2326419 16.724613
10.523319 3.1500819 16.721798
11.161469 3.1013134 16.786137
13.988998 3.8160095 16.6595
14.271947 3.7845976 16.534807
13.95676 4.8716159 16.715847
14.08174 4.3619509 16.574743
10.981305 5.9279785 16.874701
11.30965 5.7198076 16.40329
12.272003 5.2514954 16.041504
13.932485 5.1738596 16.558739
14.286131 5.4222884 16.609175
10.911613 6.450572 16.563982
11.109573 6.6695185 16.376497
11.597337 7.237668 16.490726
12.200495 7.4509134 16.439701
13.823975 7.348999 16.467987
14.393895 7.5828757 16.656687
12.729844 8.9219608 16.088486
11.823641 9.6901875 16.210295
12.487283 9.4814348 16.49625
13.389999 9.6046181 16.425844
11.783175 10.479679 16.270145
12.212665 10.602988 16.726608
13.522007 10.514993 16.611189
11.85481 11.057806 16.083731
12.608134 11.224854 16.411913
13.249668 11.284039 16.376339
11.775739 17.757677 16.477732
12.411437 17.652878 16.428423
13.339689 17.896767 16.21949
11.812111 18.314032 16.517807
13.318174 18.070019 16.465813
9.8900146 0.99102783 17.528992
10.867981 0.83398438 17.828003
9.4884634 1.6868101 17.328707
10.502502 1.0245056 17.963501
11.298092 1.4108112 17.819921
9.5957279 2.5378187 17.393978
10.736309 2.8646362 17.456381
11.325718 2.7601004 17.221321
9.8742256 3.1324794 17.2649
10.310256 3.0623083 17.369009
11.098416 3.0340431 17.059998
14.296111 3.7852216 17.485884
11.48999 4.9454956 17.964508
13.98123 4.5460768 17.150002
14.100028 4.5320735 17.526564
10.942141 5.8516021 17.658052
11.138096 5.4950871 17.663376
13.978815 5.1375208 17.147188
14.229505 5.18468 17.420149
10.847206 6.3801885 17.545843
11.28926 6.829999 17.629879
14.429544 6.9316249 17.523281
11.711193 7.1593261 17.416889
12.127141 7.340066 17.494444
13.985252 7.1858749 17.439381
14.343097 7.2877998 17.367659
12.68611 9.8544054 17.406925
13.124088 9.9028091 17.374931
12.551989 10.519198 17.501589
13.148056 10.430252 17.379801
12.817936 11.056683 17.053312
11.874531 17.908802 17.526699
12.432461 17.719246 17.578358
13.071503 17.859009 17.542007
11.912767 18.330967 17.470345
12.041555 18.520931 17.906275
9.6722107 1.60351 18.571924
10.564803 1.449473 18.867971
11.152298 1.7730687 18.219233
9.7057285 2.413856 18.509214
10.443165 2.5447762 18.647141
11.141818 2.2179687 18.312237
10.114415 3.016685 18.078003
14.403925 3.74211 18.362804
11.595001 4.9194946 18.048004
14.261688 4.4777689 18.505468
10.984852 5.7451739 18.08654
11.388397 5.4747043 18.549767
12.759772 5.6174207 18.832861
13.046198 5.6716247 18.735643
14.370646 5.2725635 18.630123
10.967551 6.156951 18.055073
11.46408 6.477468 18.422752
12.384912 6.7282324 18.65662
11.932134 7.050827 18.14127
12.215182 7.1533375 18.426193
12.923258 9.9470577 18.439548
13.08437 9.961895 18.222055
12.777974 10.276998 18.382017
13.04406 10.14866 18.339212
11.976338 17.935995 18.03367
12.249781 17.848919 18.415653
11.975386 18.096331 18.076378
12.146363 18.311287 18.506325
9.8940525 1.7265185 19.054321
10.357285 1.75219 19.041117
10.357825 2.2365749 19.065289
14.457149 4.629796 19.367653
11.760472 5.7383785 19.402725
12.378901 5.6949139 19.397797
14.488951 5.1251488 19.207291
11.669044 6.3331532 19.458158
12.284632 6.4139004 19.691597
12.787093 9.9592648 19.463894
13.005005 9.9799805 19.02301
12.83173 10.143207 19.434155
13.0656 10.213404 19.36919
12.565043 17.93033 19.114023
12.443408 18.280249 19.183157
14.59198 6.3480225 20.031006
12.848999 10.133972 20.049011
